36.3207244873047,182.176376342773,-39.8653221130371 -0.893996625643841,-0.159438354764768,-0.418747470878727 0
66.1932601928711,185.433227539063,-39.2175712585449 0.710033879306378,0.018616924559327,-0.703921373703831 0
124.564407348633,179.247756958008,-21.2707653045654 0.738697057608089,-0.355518927054395,-0.572654301989641 0
96.5748596191406,186.357147216797,-21.2707653045654 0.880083225534393,-0.205472050128202,-0.428059286488557 0
106.297752380371,183.261810302734,-15.4324474334717 0.948126306381924,-0.196897750344258,-0.249575205210654 0
86.1670989990234,187.527282714844,-27.1344223022461 0.868287867349298,-0.0647908079449615,-0.491811275409427 0
95.0449752807617,187.954849243164,-38.8590049743652 0.0315920471614702,0.0742040912547486,-0.996742542182887 0
121.86408996582,177.038513183594,-38.8590126037598 -0.64990425882378,0.541472333625542,-0.533321822430719 0
165.982406616211,137.925384521484,-21.2433662414551 0.455608521441624,-0.873718870664775,0.17040014740031 0
147.530120849609,160.902313232422,-21.2707653045654 0.640910255280261,-0.765919917029325,0.0509973075209176 0
153.451599121094,152.492385864258,-15.4324474334717 0.647673437787671,-0.750849914132217,0.12939677133508 0
139.975921630859,168.11491394043,-27.1344223022461 0.662095232837954,-0.523415866846153,-0.536344789279195 0
147.249099731445,163.109039306641,-38.8590049743652 0.565271152895813,-0.659696509420234,-0.495246442857087 0
162.840209960938,136.738372802734,-38.9601745605469 0.416702686761466,-0.905642262982444,0.0785554730481118 0
192.282363891602,76.6385345458984,-24.8314952850342 0.233600550901263,-0.86160124098084,0.450637419838725 0
178.657135009766,107.612251281738,-22.1557998657227 0.336429736502091,-0.905671336262967,0.258020276468313 0
181.750396728516,98.7916488647461,-16.6917037963867 0.297991469458518,-0.891893865747417,0.340185855632008 0
175.19206237793,119.498092651367,-27.1677112579346 0.392357623962855,-0.900394229719827,0.188004590384019 0
179.745971679688,109.746620178223,-39.206226348877 0.404185950837465,-0.893067136406449,0.19764819001549 0
192.044250488281,79.6309280395508,-38.949779510498 0.544157699273563,-0.502291628002909,0.672008570450921 0
7.32546758651733,170.087936401367,-57.5396385192871 -0.897807544884564,-0.0556537977242081,0.436857261754025 0
9.25010681152344,160.469619750977,-72.864616394043 -0.867714944296923,0.128664586165677,0.480121026107589 0
64.0329437255859,186.968032836914,-56.6181716918945 -0.947705346467705,-0.0806518546285161,-0.308787717730981 0
35.1301422119141,179.062698364258,-57.212215423584 -0.940579085329769,-0.12542811874182,0.315561042064928 0
45.1693229675293,183.017761230469,-51.3934364318848 -0.924566391337208,-0.160522232177357,0.345556943189528 0
26.9615650177002,173.214614868164,-62.9766235351563 -0.888740693007974,-0.102292808518096,0.446851386835922 0
35.7841758728027,173.102752685547,-73.7173614501953 -0.914338922051581,-0.14352752001384,0.378661044497885 0
62.8830146789551,178.864151000977,-73.4860687255859 -0.96046505325289,-0.0395848600142377,0.275571987577795 0
121.875679016113,180.527435302734,-56.4472351074219 -0.84634624913868,0.506630241138428,-0.16438924944444 0
93.1551666259766,186.781280517578,-56.4472351074219 -0.941683562834108,0.100623618903515,-0.321102716909745 0
103.516654968262,185.467178344727,-50.5835952758789 -0.867438524080327,0.0699448769504796,-0.492603411609913 0
82.8940811157227,186.073211669922,-62.2855606079102 -0.988385225738439,0.0747319231188342,-0.132324544998028 0
91.5175018310547,183.745971679688,-73.8221664428711 -0.954637469811914,0.251594922636304,0.15927114030715 0
116.789390563965,174.466659545898,-73.6119766235352 -0.830951192648741,0.529498106756302,0.170739188170516 0
164.501083374023,140.489974975586,-56.4990386962891 0.465348813992444,-0.884618838190884,0.0299998738936872 0
145.044357299805,163.288787841797,-56.4472351074219 -0.67651527169942,0.736426609943471,0.00171327891100431 0
152.516006469727,155.949523925781,-50.5835952758789 0.589997637879043,-0.469216855474,0.657067979615687 0
136.510528564453,168.88249206543,-62.2855606079102 -0.755790911806652,0.654215164929196,0.0279752677759183 0
141.952087402344,161.808837890625,-73.8221664428711 -0.615238677553663,0.773788183035197,0.150775387371774 0
157.017364501953,138.582122802734,-73.6724166870117 -0.44448257044213,0.890533639521036,0.0968766300744088 0
195.486022949219,74.5574951171875,-58.099292755127 0.506233573222466,-0.722805955860383,0.470403145732649 0
177.862121582031,110.356590270996,-57.3020782470703 0.457356766298412,-0.869764977018585,0.185293478225545 0
184.357284545898,101.05982208252,-51.0310401916504 0.465268162624137,-0.839342343189231,0.281122691681001 0
172.618576049805,121.503479003906,-62.762866973877 0.43847163402024,-0.895082192978287,0.0810585835849726 0
174.403167724609,112.491653442383,-74.486328125 -0.2418175229388,0.865278890787592,0.439109014661664 0
-10.817928314209,73.1340255737305,-99.6327362060547 0.0689768222107554,0.61607400223787,0.784662361633537 0
-2.69103097915649,77.4654846191406,-106.702789306641 0.262046929103937,0.816794164978416,0.513983169962216 0
14.2822170257568,153.040603637695,-89.147590637207 -0.896879699861333,-0.214602133887884,0.386720478003702 0
21.6811599731445,142.023025512695,-104.965446472168 0.415359250121428,-0.385094270908682,-0.824123228559829 0
0.673236429691315,99.8695755004883,-106.600700378418 0.515068252353733,0.813561489018678,-0.269856256186479 0
8.11932563781738,122.359687805176,-105.045616149902 0.790321974058666,0.450041690413687,-0.415756724791801 0
62.5292625427246,176.729232788086,-90.0433120727539 -0.866741269683988,0.0607475869113896,0.495044747584531 0
36.8516426086426,166.656997680664,-90.0464172363281 -0.803091084529699,-0.526110720722762,-0.279735981756886 0
44.8847618103027,172.238265991211,-84.4914398193359 -0.938058207788858,-0.270078535039458,0.217035443443912 0
30.6789016723633,158.294616699219,-94.6708374023438 -0.182215182067388,-0.576832416362869,-0.796280095730844 0
40.6280784606934,157.777648925781,-105.168922424316 0.433098896025093,-0.295519099653086,-0.851524402470108 0
62.2266693115234,165.135330200195,-105.178787231445 0.336162507271864,0.430121827562646,0.837848424333938 0
115.229957580566,173.407531738281,-90.3221664428711 -0.703073418743896,0.562168207073863,0.435493599047252 0
88.5939102172852,178.160903930664,-90.3221664428711 -0.736762873497752,0.381036634241423,0.558562039169602 0
98.6156158447266,178.746215820313,-84.8611755371094 -0.862469259241899,0.306979863210435,0.402380591537456 0
79.4653778076172,175.607955932617,-95.6463775634766 -0.650664068679696,0.292267668576585,0.700867947358125 0
86.9479827880859,170.709930419922,-106.100440979004 -0.172217497398998,0.483947375926336,0.857983724160103 0
108.186393737793,164.049194335938,-105.504127502441 -0.273665728395067,0.609607978339394,0.743965847231547 0
136.319869995117,159.028793334961,-90.3221664428711 -0.545784602511987,0.769432299073671,0.331802810119259 0
144.632522583008,153.44807434082,-84.8611755371094 -0.557920239639598,0.760091507398735,0.333145473600968 0
154.793640136719,139.265991210938,-90.3221664428711 -0.405633888524713,0.902124942469842,0.147077315226057 0
127.60619354248,162.437530517578,-95.6463775634766 -0.546339191479358,0.687046598022144,0.479041188208154 0
130.623184204102,153.978378295898,-106.100440979004 -0.33560079629493,0.735096242497818,0.589071829059749 0
143.749923706055,135.928283691406,-105.504127502441 -0.276102597689508,0.903147490234872,0.328773427198058 0
186.857971191406,80.154411315918,-75.8860702514648 -0.24021457025963,0.710878438264487,0.661021033134064 0
164.207580566406,114.790222167969,-90.1841049194336 -0.389321229387095,0.912774468821657,-0.123578919787568 0
171.042007446289,104.609710693359,-85.0421295166016 -0.426973239489908,0.903965447019442,0.0232448565156813 0
176.358779907227,86.0843200683594,-91.1924591064453 -0.54216877251892,0.775452220304394,-0.323615321223074 0
156.451110839844,114.62321472168,-105.910575866699 -0.301535620079044,0.948674887344771,-0.095353174802587 0
158.735992431641,123.137786865234,-95.5197982788086 -0.34928116283875,0.934730106258035,-0.0654392675757759 0
180.895065307617,67.1129913330078,-96.9002838134766 -0.599483366845906,0.496549185051928,-0.627740869865395 0
7.60977697372437,87.9595794677734,-116.001304626465 0.526207416662714,0.831948520454435,-0.175975606158435 0
26.4365863800049,93.8555603027344,-131.333923339844 0.66641338333817,0.528243216563191,-0.526167565194537 0
8.40363502502441,76.2376861572266,-119.333480834961 0.511528668146717,0.834984544241383,-0.202828086176583 0
33.9131317138672,64.0984039306641,-136.473876953125 0.555035949282919,0.803509361467198,-0.215192474399511 0
17.3400917053223,70.1160125732422,-126.863510131836 0.533935236342336,0.800699964335336,-0.271648174124998 0
19.2422008514404,124.197380065918,-113.876739501953 0.647080629375011,-0.192255355350628,-0.73778353019476 0
28.9601135253906,135.542022705078,-119.115074157715 0.576807428160513,-0.35681781563489,-0.734829393304595 0
19.4008769989014,115.684288024902,-119.167373657227 0.73536421487076,0.00302206328363754,-0.677665358876356 0
37.467212677002,125.694190979004,-130.912200927734 0.50598749442475,-0.456887988278791,-0.731594164583291 0
13.8526630401611,96.0697021484375,-119.074928283691 0.626657309678312,0.663311988929988,-0.409045011665566 0
21.1205577850342,107.593460083008,-123.382179260254 0.693221602661921,0.112937514032292,-0.711820853534823 0
29.4747734069824,111.154891967773,-131.647109985352 0.693935470131981,-0.178197107388751,-0.697638412224405 0
63.6379661560059,159.31135559082,-119.767738342285 0.976778996221698,0.0434145299172532,-0.209804602266481 0
43.7287712097168,148.475997924805,-119.115074157715 0.685463532789596,-0.269029674407369,-0.67658168723656 0
49.4435119628906,155.517715454102,-114.82984161377 0.712671791647014,-0.179877347573366,-0.678043551123824 0
40.6463432312012,141.447357177734,-123.520401000977 0.560831162956278,-0.340195598018195,-0.754808162214845 0
49.488410949707,139.864593505859,-131.957092285156 0.640318485539581,-0.367140725805826,-0.674685055808314 0
63.9186897277832,146.359573364258,-130.912200927734 0.914018113176586,-0.18632074160187,-0.360354644807088 0
105.289985656738,158.574615478516,-119.767738342285 0.157486730562481,0.528037589530529,0.83449040362339 0
83.4111709594727,161.310455322266,-119.767738342285 0.698473023755911,0.43011836563066,0.571955965641137 0
92.0322265625,163.754058837891,-115.264953613281 0.326348970668538,0.559199773633938,0.762097082077696 0
76.3472290039063,157.264877319336,-123.955513000488 0.889849564769343,0.230129846079507,0.393964473047042 0
82.1864776611328,150.863311767578,-131.957092285156 0.93104775592226,0.183088546425612,0.315640080407859 0
97.8190002441406,147.801452636719,-130.912200927734 0.629359680752343,0.446027558648407,0.636369239647432 0
122.252319335938,148.47248840332,-119.767730712891 0.0231466155962764,0.733807172286978,0.678963377573951 0
130.537658691406,145.257995605469,-115.264945983887 -0.147355993797964,0.733774890959178,0.663219888490734 0
138.077133178711,133.195205688477,-119.767730712891 -0.134839926599622,0.859893433986134,0.492342844349487 0
114.301948547363,149.420654296875,-123.955513000488 0.1648827819048,0.590588747789484,0.789948478836299 0
115.127471923828,140.74479675293,-131.957092285156 0.263090755568493,0.615879180460339,0.742614361165943 0
151.211151123047,107.752647399902,-115.138374328613 -0.260622668434824,0.965348112394118,-0.0133733539183513 0
150.46533203125,93.5604553222656,-119.577857971191 -0.239899438870678,0.94407296116779,-0.22621782251055 0
145.983489990234,115.112754821777,-119.767730712891 -0.215092097054889,0.952853693008185,0.214021563178091 0
135.669296264648,113.052894592285,-131.957092285156 -0.0941614569811464,0.989609999674306,0.108653893459034 0
140.030212402344,120.492431640625,-123.955513000488 -0.145541187067568,0.940032161817187,0.308475765038795 0
156.375946044922,56.4488983154297,-118.752082824707 -0.696663100977113,0.715987901564888,-0.0449649702508654 0
172.086898803711,59.9385375976563,-109.595504760742 -0.80115047045319,0.569678013601227,-0.183370893306416 0
160.507217407227,90.3369140625,-106.186164855957 -0.432044980317283,0.901833206717149,-0.00583114439043667 0
148.740249633789,72.1107406616211,-120.317398071289 -0.323433747413448,0.935349419475303,-0.143220370483069 0
144.885269165039,81.803840637207,-123.471611022949 -0.175550308006972,0.951212582412507,-0.2537256636976 0
114.518096923828,18.0429763793945,-124.701507568359 0.654980338984905,0.64708004237927,0.390241174528856 0
128.99397277832,36.126594543457,-128.073486328125 0.962274790519947,0.241335693993409,0.12563562526016 0
145.40266418457,43.2287406921387,-124.884170532227 -0.714471623338077,0.698640255906571,0.0378429950116807 0
119.274192810059,24.6948928833008,-127.74129486084 0.778168530347649,-0.580637830953649,0.239402271589101 0
37.9790916442871,50.1851272583008,-138.1416015625 0.587268249848742,0.801254126012904,-0.114489424257844 0
46.2917976379395,53.0253982543945,-142.480926513672 0.579034771679324,0.800607290154501,-0.154099643535407 0
54.4935188293457,47.9243202209473,-145.736282348633 0.605606197649671,0.795348847359164,-0.0257166166662104 0
77.5053863525391,56.4413261413574,-146.138580322266 0.550544384925864,0.830376135068881,-0.0858857062302528 0
63.5609474182129,50.2296943664551,-147.234771728516 0.583259788369835,0.799662953332197,0.142643542927127 0
28.1318950653076,77.4216690063477,-133.357437133789 0.560773674982293,0.736869910824858,-0.377565385023336 0
35.187931060791,82.585205078125,-138.483169555664 0.590567689428466,0.719290563051429,-0.365856379072827 0
40.1482276916504,78.4019775390625,-141.901123046875 0.568511175689133,0.761905845301395,-0.310313593018621 0
47.3564147949219,88.9835968017578,-145.430297851563 0.605562576064089,0.771070002790506,-0.196837540289633 0
45.762939453125,64.1439437866211,-142.418930053711 0.551759849743989,0.794572206648969,-0.253408911902242 0
46.0811805725098,73.7212600708008,-143.364593505859 0.548381802422435,0.7665152613489,-0.334262999584383 0
57.1847114562988,66.9116287231445,-146.739685058594 0.532636467041629,0.83888654811712,-0.112105991657691 0
36.965015411377,112.169578552246,-137.46875 0.694347861334668,-0.3528370357223,-0.62720576662103 0
43.5445213317871,120.125816345215,-140.356674194336 0.611515248149583,-0.562509069575018,-0.556446446593382 0
37.8323364257813,104.869041442871,-140.046691894531 0.859458936686459,0.0476098941792583,-0.50898294089883 0
50.2565155029297,110.751449584961,-145.185958862305 0.778363972828425,-0.546264280359211,-0.309426666281988 0
36.3128547668457,91.8455581665039,-140.221221923828 0.683139586173966,0.599548402842095,-0.416967646768375 0
40.4258155822754,99.1742782592773,-142.448745727539 0.821105121926711,0.342872715228128,-0.456316425189596 0
48.7650299072266,100.968475341797,-146.954742431641 0.909338009404954,0.346934909654609,-0.229653114750018 0
65.5901641845703,138.22981262207,-140.356674194336 0.807424080291812,-0.356777283765326,-0.469868411743072 0
52.5234870910645,129.86979675293,-140.356674194336 0.642581483080365,-0.541923388863042,-0.541671559347022 0
55.8960151672363,136.036041259766,-137.675399780273 0.704911837881465,-0.434706640012756,-0.560472513102467 0
51.1778450012207,123.741180419922,-142.655410766602 0.604653443578723,-0.622995041349278,-0.496257384451459 0
58.6102714538574,119.919883728027,-146.954742431641 0.574731531928757,-0.747524723349727,-0.333002183457912 0
65.5237045288086,126.823928833008,-145.185958862305 0.706883427719279,-0.640981762848588,-0.299095635727705 0
94.4390869140625,140.301528930664,-140.356674194336 0.814678557549977,0.306142206717525,0.492519844406713 0
78.7742691040039,140.976654052734,-140.356674194336 0.994333234367828,-0.0967188708548341,-0.0441234524054867 0
85.2268371582031,144.089553833008,-137.675399780273 0.982991328616482,0.148180874065146,0.108491826540497 0
73.9475250244141,136.711395263672,-142.655410766602 0.90989093238556,-0.298349882012444,-0.288246143193099 0
77.8014144897461,129.343505859375,-146.954742431641 0.87035880458618,-0.472784419286879,-0.137660612227621 0
87.5762252807617,130.990844726563,-145.185958862305 0.998967703546151,-0.0451773346716748,-0.00474717849812643 0
125.826812744141,128.944152832031,-130.912200927734 0.061965854753892,0.868206913615583,0.492317974478613 0
106.570686340332,134.767623901367,-140.356674194336 0.531839307160313,0.637057693373005,0.557946634252331 0
113.51830291748,133.422058105469,-137.675399780273 0.307232450234043,0.672105142106843,0.673708319287158 0
118.617309570313,124.885627746582,-140.356674194336 0.136461817924159,0.837604183082029,0.528958793038097 0
100.263381958008,134.17741394043,-142.655410766602 0.705771214069355,0.482823591713522,0.518428753712526 0
98.9614410400391,125.908424377441,-146.954742431641 0.726940212599016,0.561695085555491,0.395039945030002 0
130.117767333984,108.146537780762,-137.675399780273 -0.0838743999513328,0.983732072282315,0.1588593560227 0
129.301162719727,98.230583190918,-140.356674194336 -0.0594312912467022,0.998231854206169,-0.00104253003011415 0
125.209548950195,113.268768310547,-140.356674194336 -0.0515952573542729,0.950725969336076,0.305709111163742 0
113.860015869141,110.591270446777,-146.954742431641 -0.0837501274285423,0.982794811774558,0.164621608863215 0
119.725959777832,116.482040405273,-142.655380249023 0.00678043105578276,0.940494775039799,0.339740494903885 0
128.956680297852,77.5894546508789,-137.487869262695 0.0916302802828375,0.985282457432097,-0.144299587012082 0
136.500991821289,78.2993774414063,-131.675811767578 -0.0328314771542298,0.982952858853084,-0.180902657195577 0
122.579414367676,69.9586563110352,-140.075393676758 0.250134301538915,0.962058713260267,-0.108976435221747 0
137.531311035156,97.339599609375,-130.912200927734 -0.114166221121384,0.992234230525074,-0.0493690766490394 0
127.833038330078,84.8693008422852,-140.356674194336 0.0440009758834938,0.99343851211144,-0.10556437266004 0
125.288940429688,90.7741546630859,-142.655380249023 0.007443486793758,0.998345841598865,-0.0570103066699852 0
130.122268676758,61.9218826293945,-131.59245300293 0.126625461463286,0.988306329496772,0.0849505243411027 0
116.667472839355,45.0080986022949,-133.471786499023 0.606056789631938,0.793764065046751,0.0513203349705093 0
110.064292907715,51.5975875854492,-137.641220092773 0.554934667635944,0.830831301245049,-0.0420340757867146 0
114.842636108398,66.4380187988281,-142.467849731445 0.396573029697785,0.89783512340911,-0.191368553553784 0
113.461471557617,59.8478698730469,-139.915084838867 0.484023837571381,0.85670815692155,-0.178247183783515 0
101.20972442627,31.2835426330566,-135.19059753418 0.483737251205622,0.830643034004995,0.275736145354585 0
83.7182235717773,27.2768325805664,-141.234085083008 0.690168869695282,0.711642901889455,0.131268090158628 0
78.0624084472656,35.9484405517578,-142.271835327148 0.632605755697878,0.766588663659854,0.110235106051186 0
91.2239532470703,50.3854103088379,-142.518051147461 0.578380558683164,0.801407276364243,-0.152388669945625 0
99.9259185791016,49.1204261779785,-141.147567749023 0.573863724165648,0.817491787805245,-0.0488631042578974 0
86.1425704956055,43.5423469543457,-141.865798950195 0.592875545303857,0.803308492828108,-0.0565159546578409 0
66.1059265136719,61.2069435119629,-146.565048217773 0.537152811393082,0.841193933685519,-0.0621258653315279 0
70.8318786621094,71.6012954711914,-148.259887695313 0.473933630162008,0.87069162967706,-0.131464824998046 0
78.42431640625,73.5527038574219,-149.460189819336 0.419054479291159,0.903983838029847,-0.0848914834765113 0
52.0829925537109,78.911750793457,-146.658126831055 0.53498499672553,0.815937792806882,-0.219172469867954 0
60.7186012268066,83.8258972167969,-148.842651367188 0.442491383065609,0.894206058202388,-0.0678004527037428 0
67.6063461303711,79.6418838500977,-149.509963989258 0.41373298649203,0.906873544409251,-0.0800336825279789 0
58.6457672119141,99.8261260986328,-149.15673828125 0.802353615042906,0.590114146282154,-0.0894090084122615 0
82.9067993164063,95.1842880249023,-150.127517700195 -0.332002616569574,0.94287973414748,-0.0274238860290242 0
61.9746398925781,92.7112045288086,-149.981109619141 0.426656514822733,0.902401526931979,-0.0602967872291057 0
64.469841003418,105.52897644043,-149.981109619141 0.545727022582032,-0.833508269246969,-0.0862901032603001 0
65.9253768920898,113.164703369141,-149.15673828125 0.416465488280345,-0.901893709740204,-0.114648303094584 0
87.0440444946289,115.874092102051,-149.981109619141 -0.00886783486599164,-0.981768971859994,-0.189871133661123 0
74.030387878418,114.294845581055,-149.981109619141 0.2377551118724,-0.96743625396805,-0.0868308774964844 0
79.7721786499023,119.636337280273,-149.15673828125 0.516942775847317,-0.845982561342348,-0.130704523272575 0
107.715126037598,121.439903259277,-145.185958862305 0.245178887121593,0.878558384440722,0.409905450608705 0
94.8007354736328,116.852729797363,-149.15673828125 0.223370667301287,0.954087657966063,0.199555220192836 0
98.3880233764648,109.523345947266,-149.981109619141 -0.574556078268827,0.817872975704036,0.0311305081450815 0
118.385261535645,101.857902526855,-145.185958862305 -0.0827932693995571,0.994554796553781,0.06329321601878 0
103.838912963867,97.6573638916016,-149.981109619141 -0.219253457725871,0.975356534505883,-0.0246485673402094 0
105.215507507324,105.740463256836,-149.15673828125 -0.27350553906183,0.961629890532698,-0.0215098520815061 0
117.048515319824,89.4000701904297,-146.954742431641 0.0325630664235922,0.999293548068005,-0.0187630353288156 0
101.343719482422,84.8395919799805,-149.981109619141 0.120137147771023,0.988980458871852,-0.0865142629574136 0
107.167785644531,90.5424423217773,-149.15673828125 0.00321550577328559,0.995607722325723,-0.093567749614967 0
115.557083129883,79.6171493530273,-145.185958862305 0.192323755988379,0.977489342888156,-0.0867534288809541 0
107.203277587891,70.4486923217773,-146.954742431641 0.381699527145747,0.91409946189303,-0.136848985175577 0
91.7831649780273,76.0737457275391,-149.981109619141 0.354438158262715,0.918817735022179,-0.173630532384275 0
99.8881683349609,77.2038650512695,-149.15673828125 0.30517089308364,0.940638704707755,-0.14855824857695 0
100.095344543457,63.0311012268066,-144.961547851563 0.501951883798889,0.83830205397102,-0.212823806607052 0
87.527961730957,59.7165107727051,-146.273529052734 0.53288981722155,0.832126186437583,-0.153604858472733 0
85.8112411499023,70.1044082641602,-148.809463500977 0.442042079126222,0.88924617705234,-0.117643686101575 0
29.9946975708008,77.5782318115234,78.7607421875 -0.100012810004591,-0.977060480356645,0.188016636392179 0
36.5578269958496,63.4664840698242,74.44921875 -0.0591374375154459,-0.964854453621593,-0.256044228231538 0
28.3185520172119,86.7005920410156,79.1981353759766 -0.0768593260268417,-0.977069634714439,0.198563775451849 0
29.7412109375,80.4012603759766,77.0529403686523 -0.108488540953277,-0.940496595116419,0.322019240195756 0
31.2885894775391,113.535469055176,70.0163421630859 -0.0373633254518876,-0.949893550328196,0.310332442641874 0
28.7004947662354,116.344749450684,69.7675857543945 -0.0347280844037914,-0.945685536266491,0.32322256519309 0
25.9568634033203,124.180000305176,68.2119674682617 -0.000257171672476121,-0.948951735329615,0.315421207082914 0
28.2396793365479,133.584457397461,64.2926177978516 -0.0485278786583809,-0.923570098207044,0.380346314154284 0
32.5432014465332,93.0478973388672,73.9581527709961 -0.137201549448017,-0.847081692447398,0.513447505738917 0
30.6379985809326,99.4853668212891,74.888427734375 -0.0125933676458237,-0.988778404093818,0.148857900996285 0
33.2806549072266,106.443656921387,71.8400497436523 -0.0583175900120125,-0.94481550028951,0.322370484238049 0
31.4001274108887,108.865119934082,71.334228515625 -0.0789634523124354,-0.922422439680589,0.378023300832915 0
33.3363418579102,101.363136291504,72.6891098022461 0.0227585112044518,-0.995148136340301,0.0957195743104917 0
39.5214691162109,51.3321990966797,70.0454025268555 -0.117856207120392,-0.98086064309049,-0.154991332916733 0
35.1242485046387,56.2014198303223,74.0047073364258 -0.126337360639584,-0.991172530504831,-0.0401980855175229 0
28.8797950744629,65.2331848144531,75.017333984375 -0.0697660872252957,-0.98305291992144,-0.169527725482304 0
22.8079414367676,150.268447875977,52.3590507507324 -0.886492836137855,0.425393105629999,-0.182129506557081 0
17.8997421264648,153.623947143555,47.9154777526855 -0.592115969914598,0.655073399726876,-0.469337319145162 0
21.3723182678223,146.172393798828,57.5631828308105 -0.965277732317608,0.0187048346205261,0.260555231483836 0
17.8985443115234,155.68180847168,47.1220970153809 0.220103586908462,0.759805235006989,-0.611760096676797 0
11.7745304107666,162.862594604492,40.8058662414551 -0.610529678703887,0.52984661152353,-0.588656164223872 0
17.0559825897217,159.566375732422,41.8586006164551 -0.414775812371672,0.640975184412226,-0.645841960884497 0
9.80947494506836,167.497894287109,34.5173301696777 -0.859208403155034,0.241772153002687,-0.450895936974622 0
3.74343824386597,168.859344482422,34.5846252441406 -0.593959686555702,0.485024598325292,-0.641843462041985 0
11.10032081604,167.239242553711,35.5744247436523 0.303988359397265,0.646643977055132,-0.699601775504666 0
11.8051147460938,165.559036254883,35.6565284729004 0.533458558518172,0.598859883798177,-0.597318010712005 0
7.08215665817261,170.721481323242,27.3576469421387 -0.6676424933146,0.348460986302297,-0.657896984448094 0
-5.36133813858032,172.568466186523,25.4962482452393 -0.927636089000378,0.17831038260695,-0.32817174442454 0
2.64275503158569,170.377716064453,30.1747779846191 -0.851885202290259,0.251737480371285,-0.459260103966371 0
26.2925624847412,142.010360717773,61.963623046875 0.920175603695399,0.0819736358355649,-0.382827874366152 0
26.2357425689697,141.964965820313,62.0553245544434 0.930389359809184,0.0279918047957218,-0.365502528059842 0
26.8186187744141,139.525543212891,62.711540222168 0.825209926899414,-0.545299322311312,-0.147231877096938 0
25.0715637207031,142.479568481445,61.2272987365723 -0.942530005557019,0.0409605533038238,0.331601299300425 0
25.6774272918701,142.572280883789,61.809196472168 -0.946040325643704,0.060973396729415,0.318260816229759 0
6.74139928817749,172.652481079102,23.9295349121094 -0.709422331970044,0.281918836275494,-0.645942508784842 0
-5.92524576187134,177.278869628906,9.0468053817749 -0.977170742847898,-0.00757125354082238,-0.212320548798056 0
1.66413259506226,172.91813659668,21.1428279876709 -0.886105276899113,0.148707605771306,-0.438980052208881 0
-7.31374788284302,175.343002319336,19.3767395019531 -0.823277706471488,0.261763400016373,-0.503680196591959 0
-1.33397150039673,177.063415527344,-1.19497466087341 -0.93520961922002,0.0186193647948531,-0.353604704964429 0
-8.0043888092041,176.247772216797,-1.19270491600037 -0.992363208029142,-0.109673110641609,0.0564541597431294 0
-14.1848278045654,178.486953735352,-10.4768600463867 -0.970636279220341,0.0539428323392487,-0.234425647702022 0
1.46643590927124,176.880737304688,-2.73945736885071 0.974855460960366,0.187815001843569,-0.119926457957586 0
0.271424800157547,177.566879272461,-2.64242577552795 -0.982542461067511,-0.170657293655336,0.074070239108799 0
1.0366530418396,176.960800170898,-3.7543671131134 -0.719368051921861,-0.328310842177313,0.612145078215099 0
1.17447805404663,176.991073608398,-3.44993758201599 0.959574611017393,0.0349291390720759,0.279278572637611 0
0.407704859972,176.715057373047,-3.67282319068909 -0.983547503632754,-0.163527113204404,0.076767124114506 0
1.37622785568237,177.061584472656,-3.71056723594666 -0.988740724757245,-0.148948457854071,0.0143574409074692 0
-2.63106393814087,177.510177612305,-8.11844539642334 -0.918002733388155,0.0348917163916191,-0.395036137105359 0
-14.2587280273438,175.955978393555,-30.35719871521 -0.964749249456719,-0.0761995460515317,0.251897826219755 0
-17.2691822052002,178.722091674805,-14.4584789276123 -0.988008508094099,0.0411062599466952,-0.148826957661799 0
-17.7307224273682,179.031845092773,-17.2232532501221 -0.990801359825927,0.0353856609854373,-0.130615926914442 0
-6.72178316116333,174.020446777344,-38.2386207580566 -0.960389487260452,-0.0682072203066993,0.270184766146502 0
-21.6438961029053,168.359115600586,-44.9455261230469 -0.896703230013405,-0.0265477192036887,0.441835417195824 0
-6.0750298500061,173.025238037109,-39.6396293640137 -0.990417915287066,-0.0159377426105693,0.137179960048477 0
-6.58524560928345,173.065139770508,-39.9069061279297 -0.947587591892917,-0.0672110555134846,0.31234664990575 0
-5.63139963150024,173.221633911133,-38.3720779418945 0.994340773358956,0.0145621966937208,-0.105234827235889 0
-10.2290058135986,171.078216552734,-42.3900947570801 -0.925785127882012,-0.0518637959900426,0.374475691678365 0
-6.46257448196411,158.825958251953,-69.4188232421875 -0.883029764178279,0.160495385955982,0.441021163508163 0
-19.2471027374268,155.143295288086,-64.2034301757813 -0.801956175030362,0.0265778105678465,0.596791348224897 0
-26.0297393798828,166.462036132813,-50.0640258789063 -0.907961056352791,0.0110398473904341,0.418909109373764 0
-25.6758975982666,165.953842163086,-48.2360992431641 -0.832183542805594,-0.0645218132192321,0.550733589589769 0
-15.5762004852295,152.226760864258,-68.7929229736328 -0.809050345132058,0.112451062225892,0.57688152825859 0
-8.66811752319336,156.341110229492,-71.6609878540039 -0.862708283995872,0.1879075595198,0.46949458548551 0
-21.7493724822998,148.201416015625,-70.1928558349609 -0.833418644601985,0.202554924437096,0.51418368839946 0
-20.8303356170654,150.673721313477,-70.1476440429688 -0.85742832191265,0.222293648870791,0.46411443249889 0
-19.9917793273926,145.440246582031,-76.4472122192383 -0.789311509813653,0.131588361751194,0.599726473925679 0
-15.5182456970215,141.04069519043,-83.5233764648438 -0.727235074304432,0.355080953154834,0.587406727411324 0
-21.1354064941406,121.546051025391,-90.7270584106445 -0.434394625240063,0.791707043742,0.429536106109658 0
-22.061128616333,133.629028320313,-86.7357711791992 -0.727174216548895,0.396727550428648,0.560200776077101 0
-17.3039817810059,128.560623168945,-91.8170013427734 -0.29432491374634,0.888421584103898,0.352249817667134 0
-28.225564956665,111.127288818359,-90.4201965332031 -0.397801801772444,0.909960276704963,0.117158103969053 0
-21.1200714111328,117.290870666504,-92.7310791015625 -0.0643389967744355,0.997384068868016,0.0329471191812049 0
-24.4900417327881,75.3168029785156,-90.78271484375 -0.0703494800775736,0.994451637894303,-0.078210552626572 0
-25.3630638122559,90.0600509643555,-90.4419250488281 0.46101574110541,-0.199042449452178,-0.864781238099617 0
-28.2566738128662,77.513053894043,-89.3908996582031 -0.301935552408106,0.942651009100509,0.142281401573793 0
-25.3224563598633,90.5884475708008,-90.1702270507813 0.462759058560509,-0.332817362621992,-0.821636572249272 0
-29.1508197784424,84.6212768554688,-91.1283569335938 -0.172181455147347,0.971039827401747,-0.165635745245183 0
-29.774341583252,101.701683044434,-90.7088623046875 -0.414396317458754,0.901979923456862,0.121276171432711 0
-27.365837097168,105.699699401855,-90.5684967041016 -0.349837005244363,0.925461701858386,0.145377811770007 0
-28.2128047943115,97.1791000366211,-91.0224609375 -0.224429040068537,0.973777999480066,-0.0372560559173236 0
-29.1330909729004,91.0612716674805,-90.222900390625 0.170506770588363,0.76941019436016,-0.615577285154503 0
-27.1227359771729,70.3590087890625,-90.7386169433594 -0.192985329434414,0.981201572259795,-0.000370429474947517 0
-25.2353858947754,63.6309051513672,-90.8612594604492 -0.195221324247409,0.854639153874263,0.481124257571961 0
-157.227386474609,17.6183567047119,83.0580444335938 0.587864944713258,0.690708371540177,0.421113704670835 0
-176.517456054688,29.125997543335,76.8755111694336 0.691319496738095,0.71642291406117,0.0938912223687003 0
-149.241012573242,5.85378313064575,83.1560821533203 0.531850581290369,0.734249101325509,0.421916124820773 0
-161.20068359375,14.8114032745361,82.1787338256836 0.684647542781223,0.719980102596607,0.11351825416475 0
-134.935134887695,-14.6508769989014,76.1063385009766 0.0920524673564632,0.873260325268102,0.478479620847363 0
-129.804885864258,-17.1580600738525,74.1631240844727 -0.0374148409922739,0.885815053557902,0.462527643026591 0
-179.430145263672,48.6881065368652,70.4526138305664 0.699775642907499,0.657720128580397,0.278779988617518 0
-171.38591003418,30.4421062469482,78.3400192260742 0.693662980775964,0.695577986595815,0.187090709722093 0
-195.674468994141,71.6658325195313,37.9332695007324 0.694410761531941,0.567450677566065,0.442485505749559 0
-197.686447143555,64.2004241943359,40.1490249633789 0.660214409564922,0.64940843535783,0.377340188012007 0
-190.453857421875,68.9212265014648,48.1457748413086 0.674101425402984,0.602992626338521,0.426599532173955 0
-198.884475708008,57.7927017211914,48.9781799316406 0.664782186325921,0.707153010104843,0.240830365700399 0
-185.646728515625,63.9087791442871,60.1291580200195 0.739564405513663,0.603808942355511,0.297420999979391 0
-185.970123291016,88.0992431640625,23.7160091400146 0.0831911296221819,0.214873567631018,0.973092280251829 0
-198.26628112793,78.8856811523438,20.1074562072754 0.480959495092269,0.393771293174413,0.783340368391889 0
-196.442596435547,78.2809371948242,7.90828990936279 -0.107506568829119,0.21465980368959,0.970754091589902 0
-206.11767578125,68.4145736694336,2.90083956718445 0.0899040617792424,0.36481828564517,0.926728049718208 0
-197.946685791016,80.2446746826172,-4.20173835754395 0.342233536015119,0.11631564169142,0.932387729608504 0
-180.173233032227,91.936897277832,-14.626745223999 -0.500700764242211,-0.121350422434948,0.85707223713181 0
-186.937683105469,76.841667175293,-26.5909671783447 -0.251288697917464,-0.0691484258844778,0.965439011795486 0
-190.271041870117,72.1926956176758,-28.0485153198242 -0.442021889486608,-0.00232410057246825,0.897001252937373 0
-183.03434753418,76.841911315918,-35.926685333252 -0.58046418215623,-0.0942775211426317,0.808809669972423 0
-174.305221557617,69.7180404663086,-49.9668731689453 -0.894076291284095,-0.114289946859805,0.433088205115841 0
-178.152740478516,73.2375335693359,-46.7348098754883 -0.640229537086381,-0.146687276622686,0.754048395475501 0
-154.22297668457,51.4401435852051,-67.254020690918 -0.801147697229176,-0.489504847686885,0.34430708868019 0
-175.072036743164,63.8994598388672,-52.7046165466309 -0.841253822741417,-0.115533911505713,0.5281514186435 0
-161.243881225586,72.7210693359375,-58.1404914855957 -0.813806875933184,-0.332391089533567,0.476691233695943 0
-165.01008605957,62.2765846252441,-58.8653793334961 -0.885894314105234,-0.250795747091711,0.390247046723902 0
-149.088119506836,42.4817390441895,-68.9751358032227 -0.532062899157569,-0.695430132703736,0.482996896333409 0
-100.056449890137,67.6008071899414,138.191909790039 0.880823701089732,-0.469423905977432,0.0615695062143485 0
-99.3830947875977,75.7189636230469,139.048263549805 0.857741062947305,-0.512493880156171,0.0403768713064811 0
-78.0801849365234,80.7453918457031,139.200332641602 0.698878106579803,-0.714978965129732,-0.019351267799479 0
-113.878677368164,84.6957244873047,135.90461730957 0.867803629196772,-0.39905299367547,0.296097229624928 0
-103.665649414063,83.0618667602539,138.191909790039 0.860706527247364,-0.502599586837428,0.0811044343092895 0
-98.3665008544922,89.1540603637695,139.048263549805 0.81277890209619,-0.576135814926208,0.0863595916307325 0
-89.5042877197266,99.423095703125,139.048263549805 0.730399302994609,-0.674845528357944,0.105358298393036 0
-104.72924041748,104.904663085938,135.90461730957 0.784586810367422,-0.543350669610185,0.298652953830425 0
-97.4509124755859,97.5714569091797,138.191909790039 0.771683980107287,-0.598639338639879,0.214790076769352 0
-83.7891693115234,105.738136291504,138.191909790039 0.682960367992765,-0.716725623700559,0.140959271004897 0
-76.3159484863281,102.593505859375,139.048263549805 0.634524997029978,-0.761972019516509,0.129524783798467 0
-85.3805847167969,115.910995483398,135.90461730957 0.682927175915333,-0.676756059496515,0.274975832267232 0
-72.5771026611328,117.861473083496,134.067306518555 0.618493239054403,-0.702194948554083,0.352687350877687 0
-68.0282287597656,104.371894836426,138.191909790039 0.578052195091328,-0.813981035786365,0.0573631687605741 0
-63.3071060180664,113.584587097168,135.90461730957 0.561195135605567,-0.816763830846423,0.134003225310908 0
-51.8457984924316,107.553482055664,134.067306518555 0.457307518359055,-0.881569233060559,0.117070581160679 0
-63.8456649780273,97.4106826782227,139.048263549805 0.544404103807735,-0.836467687514834,0.0628170319330958 0
-56.1039276123047,93.8899536132813,138.191909790039 0.482211728303363,-0.875892008942964,0.0168830612313599 0
-46.9131278991699,98.5151977539063,135.90461730957 0.399577361329592,-0.916665384049184,0.00790607354143854 0
-56.7772979736328,85.7717971801758,139.048263549805 0.500358506935982,-0.863182141217658,-0.067512633037781 0
-41.0850448608398,86.8732681274414,134.067306518555 0.354030614282809,-0.93202023178557,-0.0774636152842703 0
-52.4947166442871,78.4289016723633,138.191909790039 0.478907791444226,-0.872170282019262,-0.099831490304681 0
-44.4019813537598,64.0866546630859,134.067306518555 0.415441848023576,-0.82737544266043,-0.37796553783806 0
-57.7938842773438,72.3367233276367,139.048263549805 0.545087503152886,-0.822225601202951,-0.163782400254114 0
-58.7094497680664,63.9193077087402,138.191909790039 0.585366888493954,-0.784919016334984,-0.203095405291771 0
-60.743465423584,47.4940872192383,134.067306518555 0.668736814107498,-0.668359544636679,-0.325709368226345 0
-66.6561050415039,62.0676918029785,139.048263549805 0.665886203389009,-0.721183209541381,-0.191024455009729 0
-79.8444290161133,58.8972663879395,139.048263549805 0.787866008602692,-0.606972209076873,-0.104172404679954 0
-72.371208190918,55.7526321411133,138.191909790039 0.735846983114598,-0.638326446569086,-0.225983550400526 0
-88.1321258544922,57.1188659667969,138.191909790039 0.847742326528785,-0.52859240027228,-0.0438522768616666 0
-92.3147277832031,64.0800933837891,139.048263549805 0.850916772391106,-0.525106967295084,-0.0142590098415995 0
-117.73762512207,61.3901252746582,131.438659667969 0.889516770185314,-0.253718945924565,0.379982383852219 0
-109.247253417969,62.9755706787109,135.90461730957 0.922634381824462,-0.354520244789782,0.151859123893123 0
-124.344604492188,67.2380752563477,129.050872802734 0.851353457478596,-0.199689621901624,0.485099314928424 0
-104.314567565918,53.9372940063477,134.067306518555 0.92197007405649,-0.363719101076364,0.132964649649716 0
-116.517456054688,47.4430274963379,126.26570892334 0.889071551007188,-0.20358696634875,0.41000502963084 0
-118.119972229004,54.7102088928223,129.050872802734 0.901943621328308,-0.217306998013616,0.373196158286079 0
-111.758354187012,97.4041290283203,134.067306518555 0.796028515850282,-0.441582785891337,0.41393628151884 0
-121.771743774414,88.3095626831055,131.438659667969 0.813243211279429,-0.306491438646842,0.494670069181583 0
-123.722427368164,96.8634490966797,129.050872802734 0.787599055060696,-0.302208365980856,0.536989601387848 0
-115.075309753418,74.6175079345703,134.067306518555 0.911288660041279,-0.343841298610614,0.226552729954722 0
-125.911071777344,83.2750015258789,129.050872802734 0.789056035803996,-0.236647095250598,0.56691156688741 0
-128.779403686523,76.5614776611328,126.26570892334 0.818312103877903,-0.181072373139668,0.545507191824718 0
-95.416877746582,113.996704101563,134.067306518555 0.707513954596129,-0.578727512088182,0.405584110640407 0
-108.899642944336,112.514755249023,131.438659667969 0.75532006391958,-0.477868702335671,0.44847865542135 0
-105.388801574707,120.579116821289,129.050872802734 0.729293899382894,-0.480846135478531,0.486741617614783 0
-115.354354858398,110.799591064453,129.050872802734 0.70810073375621,-0.365727867382704,0.604016951644254 0
-125.853660583496,113.5859375,120.325805664063 0.718039857193501,-0.266476842538389,0.642968782968744 0
-121.731880187988,106.99430847168,126.26570892334 0.674649427152061,-0.28274031855757,0.681840203204064 0
-76.7656402587891,128.975158691406,129.050872802734 0.699173723041396,-0.61513422654699,0.364370674367284 0
-84.3384857177734,124.483291625977,131.438659667969 0.660274076461384,-0.525054114020096,0.536988194752583 0
-90.4835815429688,126.896522521973,129.050872802734 0.697571728350185,-0.515122676894937,0.498038463931382 0
-97.377326965332,135.297454833984,120.325805664063 0.725792095358619,-0.4206954239556,0.544280437438057 0
-97.8176574707031,127.614105224609,126.26570892334 0.708501569219207,-0.467551698643703,0.52860281451134 0
-78.0822677612305,137.467666625977,119.240463256836 0.767176896524802,-0.463740952328227,0.443152274700562 0
-48.6518859863281,119.136077880859,129.050872802734 0.489307414639862,-0.833670523607885,0.256069740589959 0
-60.961124420166,125.486518859863,129.050872802734 0.625655911047151,-0.711270936176652,0.320387790532267 0
-57.3922729492188,119.958045959473,131.438659667969 0.538389057315079,-0.749333714318676,0.385533665908384 0
-66.521598815918,130.294540405273,126.26570892334 0.700229909955867,-0.639205205366962,0.317954051137863 0
-61.5766067504883,136.311141967773,120.325805664063 0.774865117790489,-0.594114095267583,0.215899261313956 0
-44.6994590759277,126.712120056152,119.240463256836 0.589656036861229,-0.795836130340454,0.137661221256531 0
-38.4227485656738,100.100631713867,131.438659667969 0.324163961994259,-0.942950865027859,0.0759038331535235 0
-38.0403633117676,106.780578613281,129.050872802734 0.336816895144168,-0.934874899716618,0.11208613217203 0
-39.6429252624512,114.047706604004,126.26570892334 0.394318802353338,-0.912734075089672,0.106907391142193 0
-32.160083770752,115.915802001953,120.325805664063 0.33858053954451,-0.926524017234957,0.164062377553613 0
-24.1049766540527,98.1091995239258,119.240463256836 0.203964259924954,-0.973033912786403,0.107719938919633 0
-42.2816963195801,76.795051574707,135.90461730957 0.377428990506108,-0.902640873173802,-0.206849730968105 0
-34.3886184692383,73.1811828613281,131.438659667969 0.294313103429068,-0.881927457818174,-0.368216996207839 0
-30.2493000030518,78.2157745361328,129.050872802734 0.254376895808002,-0.910685550989278,-0.325490740418894 0
-31.815767288208,94.2526931762695,129.050872802734 0.262577010286589,-0.964380561804019,0.0319913376325921 0
-27.3809719085693,84.9292755126953,126.265701293945 0.231928478085522,-0.969564176580023,-0.0784505484087607 0
-51.4311332702637,56.5861129760742,135.90461730957 0.51838202749289,-0.769442243371678,-0.373147032264119 0
-47.2607345581055,48.976001739502,131.438659667969 0.451641786790991,-0.686855305806395,-0.569429087165246 0
-23.788537979126,62.9457588195801,118.961921691895 0.215223217647713,-0.891721333360084,-0.398135693220138 0
-32.4379463195801,64.627311706543,129.050872802734 0.278073055643399,-0.841843536781345,-0.462574140332789 0
-40.8060188293457,50.6911849975586,129.050872802734 0.362648608078853,-0.70923669853344,-0.604540563165002 0
-34.4284934997559,54.4964599609375,126.26570892334 0.29754094572376,-0.765588266733295,-0.570389333226104 0
-70.7797927856445,45.5797576904297,135.90461730957 0.743302966114089,-0.564602133369497,-0.358782847361199 0
-71.821891784668,37.0074768066406,131.438659667969 0.755837455371537,-0.469466458342916,-0.4564109831593 0
-58.342716217041,33.8766593933105,126.26570892334 0.614659433421569,-0.481460150359493,-0.624811895310653 0
-50.7715911865234,40.9116363525391,129.050872802734 0.499285086585013,-0.580887063056989,-0.642872166364995 0
-65.6768112182617,34.5942115783691,129.050872802734 0.720202538947142,-0.491541057474886,-0.489587266695695 0
-83.5832672119141,43.6293144226074,134.067306518555 0.861972987558687,-0.491989997883488,-0.122263693309821 0
-92.8532485961914,47.9061813354492,135.90461730957 0.898090491185761,-0.436189821787881,-0.0563197035714379 0
-107.508476257324,42.3546981811523,129.050872802734 0.931786866966269,-0.282974000998106,0.227374029537915 0
-98.7680892944336,41.5326995849609,131.438659667969 0.937310605317854,-0.346101443032068,-0.0407752411372168 0
-89.6387786865234,31.1962051391602,126.26570892334 0.916543121433918,-0.373508636992336,-0.142968544247671 0
-79.3947143554688,32.5156135559082,129.050872802734 0.815511005862686,-0.387939230430141,-0.429470549409504 0
-95.1992340087891,36.0042381286621,129.050872802734 0.932560380915641,-0.350881177854002,-0.0849325318959837 0
-112.28466796875,34.7138404846191,118.584815979004 0.94916241809972,-0.179709010095804,0.258448013645835 0
-124.000274658203,45.574951171875,120.325805664063 0.838356642731013,-0.0970740445839815,0.536409143711116 0
-143.108764648438,54.6415824890137,107.160186767578 0.699816629355097,0.121793509535441,0.70386293148106 0
-133.17610168457,45.7968521118164,111.678230285645 0.729029826072675,0.0314311662658232,0.683759895346032 0
-130.854934692383,27.5770969390869,100.720924377441 0.749589912116394,0.152054453034796,0.64420059528506 0
-132.748092651367,37.1588897705078,106.598213195801 0.753110445277928,0.0944063800232654,0.651085319005262 0
-132.171569824219,98.2489776611328,119.240463256836 0.591957411718242,-0.150064486528375,0.791875667383974 0
-143.033020019531,84.9751358032227,112.014213562012 0.666760626184595,-0.0239642819101847,0.744886555498525 0
-136.020248413086,79.3339767456055,120.325805664063 0.741072563856766,-0.0970588327406431,0.66437266506516 0
-145.73796081543,98.0279769897461,107.664154052734 0.673304546992406,-0.0277137424221244,0.73884567771647 0
-132.055389404297,63.3815956115723,119.240463256836 0.706843012632837,-0.0786125693380228,0.702988633929603 0
-146.812728881836,77.6639938354492,107.664154052734 0.612762143332277,0.0482122541150559,0.788795369060937 0
-149.069915771484,68.3224487304688,102.650939941406 0.639729380986652,0.126815686483808,0.758066026652083 0
-111.401832580566,126.726196289063,119.240463256836 0.678815519597878,-0.312268975612734,0.664603323210799 0
-122.50609588623,134.513076782227,107.664154052734 0.674941139228394,-0.210233082403334,0.707288137635766 0
-128.050674438477,122.373687744141,112.014213562012 0.582191445773584,-0.134347259045757,0.801875261156594 0
-135.588485717773,118.569976806641,107.664154052734 0.616164765929694,-0.115521350943218,0.779099350983595 0
-145.739410400391,120.960418701172,93.4673004150391 0.611422874228054,-0.0300249114892933,0.79073419905855 0
-142.625671386719,112.460357666016,102.986915588379 0.549856121314111,-0.0408221538707861,0.834261228636901 0
-127.328193664551,138.878463745117,92.8478546142578 0.605397006827088,-0.112294330006108,0.787962212021161 0
-82.4791412353516,150.199188232422,107.664154052734 0.767495172590832,-0.409235191480735,0.493434613807641 0
-94.1042251586914,143.635665893555,112.014213562012 0.739658111990301,-0.200057294961479,0.642559690690008 0
-111.494171142578,144.351791381836,102.986915588379 0.68193076373846,-0.253025266260501,0.686256984008821 0
-102.319648742676,145.041091918945,107.664154052734 0.713237887158915,-0.278014031935758,0.6434282511422 0
-109.154251098633,152.927032470703,93.4673004150391 0.598631419490951,-0.310488704358756,0.738401779564398 0
-83.890998840332,156.585861206055,92.8478546142578 0.486704434750081,-0.423415202532646,0.76409316150509 0
-40.702075958252,139.730392456055,107.664154052734 0.823577474507449,-0.557843178285886,-0.102621303460018 0
-59.8433303833008,147.090957641602,107.664154052734 0.914595056547085,-0.390915500596216,0.103445415235495 0
-53.9632797241211,141.209045410156,112.014213562012 0.860954546837126,-0.45820391217884,0.220921803234731 0
-67.7887268066406,151.790817260742,102.986915588379 0.865418000365182,-0.399960967542007,0.301799451766883 0
-60.7242012023926,157.461135864258,93.4673004150391 0.0725751926404025,-0.550775890140904,0.831491888266328 0
