-225.79167175293,-67.4057693481445,-14.6773471832275 0.396338505532081,-0.918102146292628,-0.00205864165572173 0
152.516006469727,155.949523925781,-50.5835952758789 0.829021454444524,0.55041904362778,-0.0988043748149175 0
108.193672180176,16.0365257263184,-130.705032348633 0.310645921517948,0.931116164178695,0.191106777089192 0
172.630416870117,-31.3302173614502,45.2036514282227 0.521341684760476,0.847098206427545,0.103089652236994 0
10.8093738555908,-170.950378417969,-57.5747451782227 0.912281460540174,0.297733535311745,-0.281242384262146 0
147.779052734375,-175.726257324219,31.7284526824951 -0.863022061484706,-0.490044146241231,0.122677039927572 0
139.729507446289,36.081371307373,-126.46452331543 -0.47637220279719,-0.870229960439908,-0.125576034158228 0
94.8007354736328,116.852729797363,-149.15673828125 0.0394565210871683,-0.980237008924444,-0.193851977752507 0
141.668472290039,11.0636396408081,17.0574283599854 0.476372202797191,0.870229960439908,0.125576034158228 0
103.157730102539,-85.1966247558594,92.8228302001953 0.863022061484706,0.490044146241231,-0.122677039927572 0
-169.496109008789,12.4047250747681,-85.1399078369141 -0.304985584694176,-0.943562812143682,-0.129124020492932 0
140.201187133789,11.0278339385986,14.9238176345825 0.476372202797191,0.870229960439908,0.125576034158228 0
31.2448635101318,-6.59304475784302,97.1874465942383 -0.310645921517948,-0.931116164178695,-0.191106777089192 0
-60.7242012023926,157.461135864258,93.4673004150391 -0.640770546352024,-0.724801359210632,-0.253132567272859 0
91.7300567626953,163.727905273438,37.5469360351563 -0.613559096073845,0.786567580966222,0.0696898572103057 0
221.246276855469,-97.1087875366211,76.2270431518555 -0.574088840302665,-0.815321650232385,-0.07531673188795 0
-158.042861938477,-74.2701644897461,-140.356674194336 -0.329582863104981,-0.941926936593568,-0.0644110430514835 0
30.5097713470459,2.25244665145874,93.4640808105469 -0.24003765340541,-0.949543493865998,-0.201864009185335 0
-181.257751464844,-131.98908996582,-50.5835952758789 0.389026299190261,0.920392421437227,0.0391960342285701 0
-9.39724922180176,-7.82807683944702,91.7514038085938 -0.907902211229981,0.359710323029523,0.215225598732371 0
6.96465444564819,-39.9102172851563,96.7531661987305 -0.823571752324567,0.450360979314025,0.344825400868837 0
173.674957275391,-149.741195678711,-36.3421249389648 -0.785334964867175,-0.61638211380481,0.0576375115579063 0
172.47834777832,-168.114273071289,-14.7551097869873 -0.785334964867175,-0.61638211380481,0.0576375115579063 0
-181.257751464844,-131.98908996582,-50.5835952758789 0.389026299190261,0.920392421437227,0.0391960342285701 0
139.787017822266,65.6126403808594,59.5245132446289 -0.0394565210871682,0.980237008924443,0.193851977752507 0
167.906936645508,-47.6600227355957,-124.136337280273 -0.597882535308439,-0.799162259044779,-0.0622587960982183 0
-109.333274841309,-16.5568027496338,80.0180206298828 -0.630700282737908,-0.438758500734212,-0.640084472072077 0
117.207420349121,-62.2128829956055,126.275032043457 0.707008832105186,0.707197651632156,-0.00316114713732698 0
-15.4370498657227,-132.738525390625,61.6981163024902 -0.864699123063161,0.348851352468254,0.361383674859381 0
-133.957244873047,-81.780029296875,-149.15673828125 -0.329582863104981,-0.941926936593568,-0.0644110430514836 0
43.4268417358398,5.0995888710022,104.302337646484 -0.24003765340541,-0.949543493865998,-0.201864009185335 0
93.5111618041992,-4.06978464126587,166.931060791016 0.163335887313289,0.964695516412583,0.206600940290797 0
39.1835021972656,-149.676025390625,44.0884666442871 -0.949547916080546,0.0395934206267847,0.3111127064428 0
107.548065185547,-164.072128295898,28.3825225830078 -0.925052653913593,-0.326905320000725,0.193417939298923 0
170.699234008789,-104.610656738281,-48.3980178833008 -0.707008832105186,-0.707197651632156,0.00316114713732693 0
232.156661987305,-18.7214527130127,-48.5341339111328 -0.476372202797191,-0.870229960439908,-0.125576034158228 0
-93.1454925537109,-81.9779968261719,-149.973159790039 -0.316731250437037,-0.945145205886482,-0.0798865119177918 0
-165.431457519531,-90.9817810058594,54.9459953308105 0.329582863104981,0.941926936593568,0.0644110430514837 0
-94.8632125854492,-89.4938201904297,-149.243392944336 -0.316731250437037,-0.945145205886482,-0.0798865119177917 0
51.1731948852539,-97.5344314575195,93.1458969116211 0.9187311984806,-0.193832852648084,-0.344037512740555 0
100.436813354492,-165.191986083984,23.0732250213623 -0.925052653913593,-0.326905320000725,0.193417939298922 0
175.085739135742,-148.251739501953,99.933952331543 -0.785334964867175,-0.61638211380481,0.0576375115579063 0
186.191131591797,-87.187858581543,99.933952331543 -0.635849116027922,-0.770746345429553,-0.0405705885278925 0
-50.7715911865234,40.9116363525391,129.050872802734 0.352425404885621,0.91384481772525,0.201702709718812 0
132.510864257813,-15.8792905807495,164.230117797852 0.175098618502259,0.962767246811741,0.205960438592319 0
-111.735275268555,97.4507446289063,-86.8264541625977 -0.352425404885621,-0.91384481772525,-0.201702709718812 0
27.4143352508545,38.7925148010254,73.4995956420898 -0.163335887313289,-0.964695516412582,-0.206600940290797 0
-111.758354187012,97.4041290283203,134.067306518555 -0.424688569805543,-0.875733850963738,-0.229629791082828 0
185.694595336914,-106.495872497559,-44.6089134216309 -0.688541010407107,-0.725145727644678,-0.00865740528280061 0
-66.6561050415039,62.0676918029785,139.048263549805 0.381646672916734,0.898782102165174,0.215723317884596 0
-216.099380493164,-25.0227890014648,-63.878044128418 0.399539665789589,-0.916713016757819,-0.00230225270597951 0
-221.829330444336,-25.1923408508301,46.4120483398438 0.426484021748365,-0.904484556160481,-0.00436656163563008 0
67.3469161987305,33.6892623901367,-147.223541259766 0.310645921517949,0.931116164178695,0.191106777089192 0
138.820663452148,66.6445465087891,64.5434494018555 -0.0394565210871682,0.980237008924444,0.193851977752507 0
-164.987808227539,3.00963544845581,79.5304412841797 0.306260254082058,0.940945089743641,0.144315608500691 0
65.5237045288086,126.823928833008,-145.185958862305 0.183560492469208,-0.968004138325048,-0.1710951015957 0
115.392623901367,10.3136177062988,-126.693336486816 -0.574088840302666,-0.815321650232385,-0.0753167318879494 0
113.51830291748,133.422058105469,-137.675399780273 -0.183560492469209,0.968004138325048,0.1710951015957 0
-10.3699970245361,-25.8148193359375,93.0104141235352 -0.898420118046876,0.372369168244998,0.232771334208416 0
164.655578613281,-172.242950439453,65.9001998901367 -0.845987821818035,-0.522365536077866,0.106952569177468 0
-131.898147583008,-21.572265625,71.9330749511719 0.304985584694176,0.943562812143682,0.129124020492932 0
